# 3D point list with one line of data per point:
#   POINT3D_ID, X, Y, Z, R, G, B, ERROR, TRACK[] as (IMAGE_ID, POINT2D_IDX)
# Number of points: 347, mean track length: 5.2351694915254239
1540 0.2382897924629927 1.1855187882919502 2.1936250988197417 133 146 176 0.61948288700826781 43 103 32 118 88 117 7 339 60 341 53 356 55 202 64 473 68 317 44 271 92 272 41 997 90 102 98 91 91 90 9 97 27 48
1541 0.91245789495206597 0.93077557306419012 1.2802011619313416 18 23 32 1.0202395385770657 34 865 78 510 54 551 4 536 43 431 59 653 32 806 88 196 53 413 82 418 11 507 5 39 44 458 21 327 45 254 100 9 39 266 86 214 28 241 57 22 47 301 8 8 73 10
1544 -0.48363013077576489 1.359963417366653 2.9301461801787179 119 122 114 1.8002784966897394 26 795 60 778 53 766 24 1225 94 910 87 926 40 1210 64 856 82 744 88 508 82 748 34 1194 54 872 4 826 43 751 59 1196 68 750 15 812 21 806 70 752 93 1168 18 856 47 739 49 1188 23 778 65 432 47 733 37 576 62 386 74 378 1 426 38 312 1 424
1545 1.1163249511186124 0.52823733256012761 3.093026112502963 0 0 0 1.0511161274227234 60 786 88 519 68 763
1546 0.40193757639863614 0.59976097871594347 3.2781160643409457 103 72 59 0.093927220936527583 34 597 68 11 44 22 92 23
1547 1.2295437696018043 0.99825872420170536 2.8594653624371498 149 99 73 0.12774793393323897 34 185 68 61 44 87 92 87
1548 0.51043092091754017 1.1569724533242984 1.7873996706316548 114 122 147 0.37154927537452059 53 329 88 92 68 77
1549 1.1639052655167974 1.3630247113319629 1.28679819341655 254 235 68 0.2152541691043596 53 92 68 257 44 169 92 142
1550 1.4666241883105648 1.1463250095122672 2.7437767036466116 222 207 171 0.0972955790012245 88 66 68 347 92 354
1551 0.70706516896647031 1.0105205548326202 1.5149196271484195 65 71 93 0.29192063556972531 53 132 68 359 11 265 44 302 15 250 92 61 45 13
1552 0.52369859243106043 1.9146179341405236 2.3388183369369018 115 76 57 0.19684890215380052 88 88 68 365 44 310 92 316 78 140
1553 1.1231465299196417 0.75264045334826923 1.3907271235344287 125 98 23 0.29760849588437183 43 35 68 368 44 320
1554 2.1734277222460343 1.4603686712451349 2.4033353621745088 122 83 63 1.0260069980231905 32 697 88 1 68 397 11 478 92 628 25 146 45 590 86 573 100 582 39 657 80 677 28 597 57 662 31 547 72 729 66 749 12 408 10 554 96 516 84 525
1557 0.50844985056245773 0.96704867579484577 2.1732588441292684 197 165 50 0.17249141360442863 88 257 68 472 44 433 92 459
1558 0.74149086821171706 1.0934220719047776 2.0347224743737109 146 120 42 0.18135841184893625 88 241 68 483 44 443 92 470
1559 0.60548977281869787 1.778368139210047 2.1304694738313823 102 67 52 1.3444400202305269 88 239 68 514 44 312 92 320
1560 0.90536216953525728 2.2139649274735018 2.048723551468413 1 1 1 0.044187394400509054 34 892 68 546
1561 1.3074191683513401 2.3473585896857432 1.921287522935174 147 100 75 0.5541840764565914 15 623 68 567 44 535 88 174 70 577
1562 0.10175487953299693 0.73212816244295797 1.9228122363776401 247 217 67 0.17005901154855754 88 352 68 605 44 619 92 637
1563 0.29971171186215778 0.96001209024418011 2.2269982680111089 12 13 16 0.29624094780264254 88 346 68 608 44 429 92 453
1564 0.3001172146788601 0.96108605202090946 2.2307331019613832 12 13 16 0.20248392265116508 88 347 68 609 44 430
1566 0.2645356809900673 0.47710975168082154 2.5219823103649976 196 142 43 0.03976290501699619 88 472 68 644
1567 0.02875584748224869 0.68760824448310809 1.9440268228549262 255 222 62 0.041215004688031347 88 366 68 649
1568 0.52901615383265954 1.0488547675124713 1.9076441340186383 102 78 20 1.1854653933009891 82 652 88 463 68 676 44 437 92 461
1569 0.70379461761472939 1.1507570917997871 2.0350890646363693 30 25 28 0.60084246933170549 88 421 68 680 11 735 76 519 25 472
1570 1.045599446245161 0.77443869759889505 1.329183493758427 205 215 242 0.011702639688744465 88 404 68 688
1571 0.33557631540398047 1.325256249778723 2.1771781943757351 16 25 38 1.866569235257505 15 823 88 506 68 747
1572 0.10960566665436418 0.57543972662074594 2.1907002127453619 252 222 66 2.5787092624072185 88 522 68 762 44 772 92 794 39 765
1575 0.6569218284177466 1.7496937491001585 2.2080163099526873 15 12 11 1.8276667823080746 82 656 34 906 68 367 94 864 87 885 40 1187 93 1151 7 763 26 754 60 739 53 611 55 571 46 877 83 669 98 622
1576 1.4867854700746235 0.91115278949540379 1.5643161559470924 253 202 52 0.75590493476020482 24 604 94 341 87 326 40 683 15 278 68 390 26 252 60 244 88 17 7 15 44 482 93 765 92 506 70 183 84 218 42 350
1577 -0.64559509234078327 1.3977623328928586 2.9013509529367014 135 92 70 0.5002233633010521 24 1042 15 391 93 1017 68 450 26 721 32 858 88 300 44 238 44 400 92 236 70 602 23 672
1580 2.1618345781471731 1.4000802884505668 2.4176442545754457 166 123 103 0.35302012249389247 24 842 94 506 15 505 68 534 34 646 78 35 54 341 4 20 43 234 59 416 32 874 88 167 11 633 44 596 92 625 18 639 23 566
1582 -0.23084530085369484 0.46256633220145121 2.1310544688001554 255 232 72 0.45347745750479113 24 1114 94 792 40 1099 15 722 93 993 68 642 7 718 88 478 44 610 92 632 70 586 42 473
1583 -0.25928543354685812 1.0647745021225083 2.6908181906788258 85 84 76 1.8436648328087739 88 285 68 451 94 102 87 362 40 456 26 553 7 482 60 541 53 526
1585 1.1711129724184575 1.4132580560210315 1.2503918004509464 254 234 63 0.2171230186232887 68 261 11 9 44 180 92 156 45 31 86 94 39 70 100 37 80 43 28 59
1586 0.85462654932615234 1.0041249100185128 1.2079680948567999 69 69 73 0.45583330903955965 32 337 11 11 92 76 44 89
1587 1.2419179334841428 1.360142069714676 1.2836954440141399 211 134 37 0.071419185991249662 32 329 11 24
1588 1.4672131667409816 1.2990912390244669 1.2893083489275223 253 231 70 0.11784837041389928 32 343 11 56 76 22
1589 1.4672131667409816 1.2990912390244669 1.2893083489275223 253 231 70 0.11784837041389928 32 344 11 57 76 21
1590 0.12172357071498406 0.61302325089825138 1.9732880023562993 254 228 70 0.025856784082028978 32 452 43 123 11 85
1591 1.1458719837065849 0.66597815040890918 1.4253375317480816 72 73 77 0.09092000607369366 32 413 11 130 45 90 100 59
1592 1.518540926421023 0.94934254781110872 1.5114086248093703 172 106 32 0.30027485442777885 32 402 11 152 45 178
1593 1.3476374468963519 0.54471869726341737 1.3613185164325379 255 250 79 0.090459452185571068 32 424 11 166 45 146
1594 0.85009972091776553 0.72799681529237026 2.079861028755015 77 71 75 0.17218714795572529 32 204 11 180 25 116 45 113 16 51
1595 0.30168224546025801 0.60872465368132767 2.8049229872115102 33 26 18 0.40497591678553491 32 283 11 203 100 328 39 306 28 256 57 324
1596 1.8328877159799077 1.4348633008914713 2.4741940585363751 121 113 97 0.083860426680305689 32 466 11 207 25 143 45 217 100 239
1597 1.6616147401963968 1.2008635439902435 2.6119934301369296 28 22 26 0.16686043825602173 32 231 11 220 92 179
1598 1.6144096385504807 1.1629321174038179 2.6582159778598444 48 35 34 0.056328435548343013 32 501 11 223 25 168
1599 1.613507329177245 1.1414225971533229 2.6804685364019005 109 74 58 0.17614320422918914 32 505 11 225 45 218 25 171 86 183 100 237 39 244 28 213 57 260
1600 0.83942232908962933 1.0048527366529629 1.2224930233574787 52 55 62 0.27606897898869476 32 553 11 252 76 237 25 7 45 7 100 6
1601 0.83920254565353058 1.0056487103095044 1.2232008156248779 52 55 62 0.28379891416450864 32 554 11 253 76 238 25 8 76 9 45 8 100 5
1602 0.96372556359715544 1.2120741295960298 1.3639477108168583 183 194 223 0.81470905219091994 43 204 25 215
1603 0.012154280507157533 0.48218435256385733 2.7998352506323898 210 215 237 0.12503839069098857 32 785 11 413 25 559
1604 0.54355892790300819 0.70251141673627915 2.6590069253236575 69 47 14 0.84226872246326168 32 777 11 431 100 338 39 317
1605 1.97724948305531 1.5557089931587162 2.382198050181799 232 218 182 0.3657270260989775 32 653 11 432 86 559
1606 1.8532113742386711 1.4928087309677207 2.4356407958361581 229 215 180 0.26068418229713197 32 675 54 89 11 441 45 460
1607 1.21921992902542 1.0483573147875211 2.4978506414525095 229 209 167 1.181111047932708 4 368 11 447 76 654 25 625 47 126
1608 1.6182874230850885 1.3619170514847865 2.548210023569093 229 213 176 0.18092846564435217 32 719 11 449 76 412 25 377
1609 2.0748687286880974 1.5300339857871492 2.3756778884028527 233 218 181 0.44515834621498135 32 662 11 454 76 393 86 569
1610 1.4455783941924338 1.2732577224274901 2.6411972153559899 233 215 174 0.21070557530608588 32 745 88 58 11 457
1611 1.3888416355030451 1.2500583584960974 2.6785378800611603 231 214 174 0.023700637595730854 32 750 11 462
1612 1.6319340608859318 1.2482680343220267 2.604189064225173 53 37 32 0.38283771650760201 4 350 88 197 11 475 45 215 86 394 100 482 39 467 28 403 57 259 31 370 84 440
1613 0.84733067316227995 1.147557730949949 1.1209853515384836 142 128 39 0.55271163364080012 32 937 11 497 76 479 25 436
1614 0.17447268505561139 1.1279094295856023 2.1783587812164131 162 174 203 0.30147381050050126 32 838 11 521 45 237
1615 1.4933303640042366 1.2006834200965821 1.3876695846358882 3 2 1 1.5348132057086663 88 302 11 537
1616 0.26203608984224813 0.48828442096958991 2.0403929974450805 255 245 71 0.27039463984393047 32 880 11 569 45 482 100 272 80 322
1617 0.01602936666174342 0.31201728646396926 2.2086779309137241 198 124 23 0.17715705471196352 32 908 11 584
1618 -0.054105308174151212 0.65418698931584829 3.3126585843859457 196 185 157 0.63920622830689566 32 1013 11 620 80 399
1620 0.83359458952409271 1.1466276543644156 1.0358836214260425 1 1 0 0.70473385736600003 32 936 11 652 76 229 25 201
1621 0.021708482463541307 0.70238759018603436 1.9493159876124544 255 230 71 0.8848486437833899 32 955 11 657 25 459 86 6 57 1 22 11 84 1
1622 0.64922599034958672 1.2485885086229183 2.0813396018223371 207 175 58 0.74026739243011497 32 947 76 635 25 600
1623 0.36340962582969916 0.97396748309648418 2.1856367864023434 254 214 64 0.92449620335782268 32 1056 11 666 76 531 25 489
1624 0.030054047781994792 0.36333042513952529 2.1530307460992431 255 244 69 0.22741720463611576 32 985 11 674 76 560 25 511 45 474
1625 0.83851323576772885 0.91293934203085925 3.0066678879233226 221 204 165 0.05864026745420451 32 1003 11 697 80 661
1626 0.77796877654639174 0.87939542129468862 3.0332811799039141 221 204 165 0.075833678004682409 32 1004 11 698 76 663 25 640
1627 0.66195834399242792 0.82884150029642512 3.0964301279681226 214 197 159 0.50846048314909775 32 1007 11 701 76 665 25 642 45 638 100 622 80 658 72 641 66 654 61 437
1628 0.42313252989340694 0.71287231278984342 3.2204410737445555 217 202 165 0.28659365016152133 32 1011 11 706 76 670 25 646 45 632 100 616 56 664 16 698 8 529 73 522
1629 0.42778564717344264 0.6941144924058873 3.2021561420990747 217 202 165 0.46520136333929674 32 1012 11 707 92 263 76 671 25 647
1630 1.8612223324706423 1.2400327412392544 2.5532721234982341 155 102 75 0.57939686140341562 32 976 11 708 44 657 92 677 45 694 86 690 84 597 42 746
1631 0.97324005836440974 1.0224895778275249 1.0837289051244361 255 249 78 0.9763408980968582 32 1022 11 717
1632 0.8841361244028243 0.96431176269313201 1.2428884188597498 189 198 225 0.51390565433020996 32 1025 11 720 76 676 25 650 45 651 86 703 100 641 39 660 80 678 28 602
1635 0.88450737040617122 0.98902488099794095 2.9238676495718146 43 42 39 0.3151487281075423 32 997 11 759 45 689
1636 0.71793546417945964 0.91679389108717779 3.0252154115873329 41 41 38 0.39851576241361114 32 1073 11 760 45 686 25 638 76 661
1637 0.24160562423653523 0.57220991991373527 3.0992787528439032 13 12 14 1.1642093693742335 32 1079 43 677 11 762 76 748 25 733 11 794 45 624
1638 0.91300640128970967 0.8591151855531074 3.0100424663969734 75 51 45 0.53791872073728231 54 795 11 767 86 680
1639 0.80561441068333239 1.050930848884716 1.2950638277754631 0 0 0 0.72714016153338401 32 1112 11 771 76 728 25 696
1642 0.44323766648901286 0.96654480883111371 2.199133228358872 36 30 16 0.3598419275303511 32 1096 11 783 76 700 25 669
1643 0.098340519767766602 0.56295654755259317 2.7481762649842452 255 224 61 2.2495297233876896 32 1110 11 790 76 780 25 745
1644 0.28505139468338003 0.56028458360762212 2.6572149922865522 255 233 68 0.91985172327610909 32 1122 11 808 76 779 25 744 45 738
1645 0.47256389313761976 1.1649067678929599 2.0769933393128484 28 29 30 1.7354451361086543 32 1127 11 812 76 773 25 739
1647 0.56498392922810048 0.72460140493323499 2.4141435132030096 255 229 67 1.5529825095301717 32 1143 11 830 76 783 25 749 45 756 86 737
1648 0.80962884477684993 0.78698783104423742 2.5136310962237913 16 18 24 1.754286528725308 32 1146 11 835 86 743 45 763
1649 2.0026667540771999 1.439259251896621 2.3301330989114066 150 145 128 1.3238015235158596 32 1142 11 837 25 756
1650 1.1140368659103015 1.2844009642443459 1.2475511607171104 255 213 59 0.24305066888671564 11 840 76 796 25 762
1653 0.23108710070838903 0.52343418751538839 3.3793461475421611 204 193 162 0.52103155509169108 54 289 43 185 32 545 11 237 53 153 64 244 82 367 34 825 78 473 54 531 43 411 59 850 32 795 68 3 11 494 92 12 44 11 21 495 29 642 45 352 65 145
1655 1.0822411992346959 0.84867901539428592 1.3375555148179397 72 68 51 0.30147467026963137 32 813 88 311 11 528 26 402 60 399 53 398 82 216 34 28 43 208 76 259 25 229
1656 1.5558998919952491 1.1693269723141959 1.3856130044956778 172 123 43 0.5710915621947914 94 859 87 877 40 1163 7 710 26 727 60 715 53 701 55 508 46 771 82 678 43 684 32 1089 11 778 34 1078 88 446 76 730 25 700
1657 0.08522524862634448 0.40200914069208959 2.1324777160453716 255 235 74 1.0362015785058372 34 1046 78 677 4 701 43 620 32 978 11 575 34 934 78 578 54 637
1658 0.10106527817049926 0.6014919021095807 3.350267807490964 230 215 178 0.56063484019034215 82 508 34 979 78 628 54 697 54 764 4 655 43 550 32 933 11 638 88 288 68 437 5 134 76 612 25 577 45 517 100 350 80 421 57 116 72 126 56 666 16 646
1660 1.0471190513219191 0.77682146644620709 1.3343343090838402 189 201 232 0.33087878226385897 88 405 11 733 44 708 92 751 45 665 86 664
1661 1.1493363694453358 0.78100843055877711 1.3725253990583299 124 103 26 0.84341245284038413 34 999 5 29
1662 0.969976236685265 1.23385365455753 1.9273982733178916 140 104 25 0.23588125885569472 82 436 5 52
1664 0.98312758188604354 2.120923589053088 2.1319428724669405 106 73 62 0.35089101423497859 34 893 53 587 5 68
1665 -0.17537016443993009 0.51938295792984612 2.0881746682362561 255 224 70 0.45963884294198332 59 740 5 107 21 143
1666 0.095914203127492534 0.59036532922923834 3.3404370768299558 228 215 178 0.25820153887450426 64 633 78 629 5 135
1668 -0.10847302231001445 0.4390442160348525 2.1349368133098494 255 236 76 0.32212395908152297 64 705 5 196 21 661
1671 1.1525495281653011 0.71096924362748115 1.3877583016443844 115 90 22 1.97423020800925 26 399 60 389 53 392 88 312 68 625 5 26 78 509 54 711 4 288 76 269 25 242
1672 0.11761206346303534 1.7770677295650754 2.4846685057247861 42 35 38 0.21465105691512565 82 491 34 935 5 108 53 372 82 353 34 770 78 394 54 452 4 406 43 346 59 768 32 608 88 115 68 343 11 263 44 290 92 288 21 431
1673 0.095505870481957286 0.47143679150456547 2.0569980164068293 255 228 71 1.0123423932385378 34 1045 78 572 54 623 68 586 5 89 26 428 60 590 53 604 55 280 43 509 88 373
1674 -0.15057331203162294 1.5271873256670776 2.6718824637725991 52 39 35 1.0855587059544334 94 234 87 222 40 581 15 246 24 597 93 402 7 561 26 576 60 560 53 528 46 562 82 612 5 120 55 434 64 649 41 1129 17 602 95 567 97 867 29 1019 33 167
1675 0.81545359950201246 1.0037299443663865 2.1226467206521922 33 33 41 0.88311709762598589 78 659 54 727 5 161 34 904 64 676
1677 0.63987438674315689 1.7558576163559132 2.138250910146303 210 194 160 1.7508288442689011 53 494 34 719 5 75 78 125 82 462 88 78
1678 -0.56320255747965897 1.279572461590188 2.9865714172352704 133 135 125 0.92829085219859941 24 327 94 383 87 383 40 511 15 22 60 564 53 538 55 441 46 759 64 741 88 298 5 229 82 532 78 707 41 1237 95 689 97 1178 51 447 30 464 36 427 83 491 98 465 91 188 9 493
1679 -0.057040060493585509 0.49088435502505195 2.0759048234715407 178 127 35 0.84340732433961274 24 537 94 460 87 478 40 788 15 0 93 496 7 592 26 613 60 612 53 620 55 290 82 596 78 579 54 638 4 579 43 617 59 731 32 878 88 148 68 275 11 103 5 99 26 158 60 154 34 255 43 150 21 380 76 297 25 276 70 2 18 4 47 82
1680 -0.63987343169362143 1.3979978183879038 2.8839307684967075 133 91 70 1.0722344403148714 26 240 60 232 64 743 34 989 78 632 24 1043 15 392 93 1018 26 720 60 709 53 642 82 628 54 693 4 650 43 529 59 1004 32 857 88 299 68 449 5 143 44 237 44 399 92 235 21 642 70 603 47 562 65 276
1681 0.21959559963204253 0.54822187716237214 3.1351841571255137 19 17 17 0.90015394164542506 59 817 44 9 92 440
1682 0.87357232258933193 0.83426439540728936 3.0266549129253293 133 89 66 0.068089114936816283 68 37 44 67 92 57
1684 1.5655520245950989 0.9432751979770736 1.51311129992483 172 110 36 0.26856094793716273 68 153 44 198 92 206
1685 1.5655520245950989 0.9432751979770736 1.51311129992483 172 110 36 0.26856094793716273 68 154 44 199 92 207
1686 0.32855290050999381 0.82686626858291301 3.3048142371236757 254 239 69 1.9345475685252926 68 19 44 260
1687 0.29770096330293216 1.0089104774873616 2.2184603779515082 255 223 58 0.21625108705121207 88 263 44 265 92 268
1688 0.55630484323120033 0.70848105504260284 2.3917576942356296 255 226 60 0.3594031493409664 68 297 44 268 92 456
1689 0.70027340217750467 0.93502241109710116 1.9397654679049512 134 95 19 0.068300326837584746 15 243 44 295 92 302
1690 1.4442434368888044 0.96877568871996933 1.5339531603541063 255 216 60 0.15425012320650491 68 394 44 360 92 377
1691 -0.19173966443273241 0.40107813495630484 2.1772970141841186 254 230 73 0.15567206426220917 15 358 44 387 92 406
1692 0.53094690186273807 1.04092726453787 1.8827178561760236 86 65 13 0.79939044220557809 68 677 44 438 92 462
1693 1.7920761740321323 1.8700996982679077 2.1517086683028626 241 222 181 0.32421919042494429 94 595 44 582 40 922 92 600
1694 2.082360695043536 1.5205753379895299 2.3805874297374054 235 220 181 0.26368467553585423 34 649 44 595 92 622
1695 2.0232688319569232 1.7095135399099914 2.2616704896959421 242 223 183 0.25243077809933978 24 1090 44 667
1696 0.072708887816017323 1.0881089063952487 2.2475819202676504 255 218 59 0.20575859679371133 78 734 44 677 92 693
1699 0.57358868554184161 0.86322271220635372 2.4131196313907051 50 36 36 0.22417514116636714 68 661 44 690 92 709
1700 0.75248363607105717 0.76439346743657655 3.0722309305780744 105 72 58 0.42470257171352244 68 650 44 692
1701 0.90835473748365525 1.0291348217171077 1.2346036809884784 22 18 8 1.4243305875361063 87 755 44 709 92 722
1702 0.28703018861348389 1.0740926800598605 2.1684846323323375 251 207 59 0.95728589332527214 11 813 68 746 44 755 92 779 76 756 25 722
1703 1.4388672688213846 2.210012272494525 1.9870644895426282 230 214 177 1.7842336710976014 88 513 44 766 84 652 42 815
1706 0.55223244177352682 0.84789123051006821 2.2825538219019355 245 195 59 0.36486634090013403 82 466 43 588 32 968 26 432 60 586 53 463 88 258 11 583 44 274 24 563 15 235 92 286 76 644 25 616 45 614 100 598 86 427 39 520 80 641 28 255
1708 0.65172080420051781 0.74904760989611319 2.4502509600744795 28 28 31 1.0175969660519673 54 447 43 121 68 43 11 389 32 761 44 275 53 566 43 594 88 260 92 289 76 582 25 544 45 323 86 437 100 536 39 626 80 579 28 458 57 530 31 448 66 375 22 800 14 318 61 548 12 288 71 264 96 393 47 369 6 917
1709 0.02164519082027103 0.57862180715196687 2.0038130158347727 255 233 69 0.38529299596387229 24 738 87 484 40 795 15 366 44 395 26 617 60 614 55 462 46 593 64 692 88 374 68 588 92 417
1710 2.0557179253798128 1.3985433863570715 2.4639125646142364 103 69 53 1.0120547914549005 24 834 15 492 44 537 34 657 43 244 32 716 11 480 11 628 92 606 25 393 76 434 45 587 86 567 100 638 39 654 80 675 28 518 57 660 31 544 72 727 66 746 70 477 12 405 84 509 71 623 10 580 96 513 42 628
1711 1.986384991243171 1.311288479946223 2.5092168947243785 158 112 89 0.34758236717569774 43 448 32 882 11 640 82 228 34 668 78 322 54 366 4 38 59 428 44 518 24 813 15 459 93 818 92 681 86 633
1713 2.0446657945103976 1.3413795234424988 2.4821484488294825 150 99 74 0.39627308341663364 32 881 11 639 44 534 24 819 15 473 93 831 92 593
1714 2.1021240138371469 1.3687098436471143 2.4462537502961008 151 103 77 0.33900621154123906 34 655 78 311 54 352 4 27 43 243 59 419 32 877 11 636 44 566 24 829 15 493 93 839 92 616 23 565
1715 1.3580347373180599 2.3738183725614244 1.8833014153827643 102 68 55 0.48300170939967602 24 1110 94 790 40 1097 15 626 93 1076 60 530 68 568 44 567 53 136 88 16 68 426 92 544 86 458 100 544 39 548 80 585 28 484 57 546 31 477 72 647 22 826 14 481 84 460 16 47 69 543
1716 1.4073452397027402 2.3571991429632968 1.8906733644501255 224 208 171 0.92279944040277329 26 372 53 290 82 44 34 405 78 32 54 26 59 41 68 427 44 569 94 789 87 802 40 1096 93 1116 55 384 46 718 68 569 92 554 41 1017 17 506 95 246 51 206 90 219 98 442 83 481 91 601 9 753 79 504 86 461 39 550 80 417 28 487 31 479 84 562 71 303 50 338 67 274
1717 2.2294618158825981 1.4401146730218075 2.4011458911638353 154 105 80 0.61525849900353635 24 869 94 391 87 386 40 730 40 836 15 542 68 540 32 865 88 162 11 632 44 608 78 26 54 43 43 228 92 630 76 590 25 557 45 591
1718 2.2282590235853514 1.4389054339416303 2.3967974386195117 156 107 84 0.47503359958618124 24 868 40 837 15 541 68 541 78 27 54 42 43 227 32 866 88 163 11 631 44 609 94 392 87 387 40 731 92 631 45 592
1720 0.56919922065840112 0.8199921221606763 2.3436536025525037 98 56 16 1.512766320375845 24 1035 15 643 44 689 26 600 60 580 68 660 32 1069 88 339 11 755 43 668 92 708 76 710 25 676 45 673 56 611
1723 0.32245385750224032 0.49653995084250319 2.2387738480814625 74 59 53 0.6489441854391883 43 370 44 15 92 13
1724 1.0328285278061993 0.72987852407757736 1.7611229391189349 252 182 43 0.24247289485567664 44 84 92 72
1725 0.98949459530701012 0.93191484938852454 1.2897650801092109 91 99 121 0.16681207110506618 44 321 92 83
1726 1.1067237177252367 1.340256724990351 1.3264566853989761 255 240 65 0.10655674835295233 44 147 68 232 92 120
1727 1.1067237177252367 1.340256724990351 1.3264566853989761 255 240 65 0.10655674835295233 44 148 68 233 92 121
1728 2.0028129733252711 1.4675820411831941 2.449085844470575 236 218 176 0.15484175954636947 44 234 92 234
1729 0.33765577488394133 0.45392894717061077 2.0846096277619171 254 246 64 0.11911059600665308 44 13 92 254
1730 0.47886704405817482 0.7991049916973193 2.2717206378649273 255 215 58 0.37446574014828493 44 269 92 276 86 211 39 64 80 116
1731 0.64411120771883146 1.063228097610198 2.0507805060366215 145 104 20 1.3693847145446358 44 296 92 301 45 50
1732 0.1578019382064485 0.51087949550215805 2.051956981926597 255 245 66 6.7243297134323175e-05 44 405 92 426
1733 0.21889254221138152 0.53676748156927834 2.0125502810732674 255 245 66 0.034417413180631129 44 414 92 436
1734 1.7263826426157627 1.8064625480736551 2.1358770576792052 244 224 182 0.019940544142311625 44 553 92 576
1736 1.7846934442327589 1.8409301986897093 2.1131190012140157 243 224 182 0.040526264049298502 44 583 92 601
1737 0.3554535030614619 0.79858829744949589 2.3320809257416442 255 207 53 0.35793783581984745 44 679 92 642 84 396
1738 1.1752675770064889 0.68539149521152065 1.4113005911732588 26 22 13 1.8311831544003327 44 635 92 658 100 302
1739 0.2603455153549934 0.48372906062359888 2.361194485282335 38 35 31 0.19494932184817787 44 618 92 690
1740 0.99343044179220885 0.82909148230727636 1.3167098859838553 15 16 17 0.45156028452185981 44 705 92 720 86 661 39 603
1741 0.99197912466478899 0.82931364167643029 1.317729166799954 15 16 17 0.48297310572535579 44 706 92 721 45 607 86 662
1743 -0.2027124776675803 1.1221671003908444 2.4485351631702805 17 19 23 0.37424788310225343 44 739 92 736
1745 0.27403207459744833 0.52495911611164292 2.8765642469697488 27 31 37 0.41531590449141059 44 721 92 758 45 752
1746 -0.49669309030950493 1.3352785114745926 2.8149914774766187 154 152 139 0.5650508181692675 44 754 92 770
1747 0.12156715817444734 0.2421558998685871 2.3626180437345168 0 0 0 1.2141449698535567 44 763 92 787
1748 1.9377906624795453 1.5120776641268541 2.3130014936623491 229 215 178 1.6863286075710531 44 768 92 791 100 747 80 785
1749 1.9377906624795453 1.5120776641268541 2.3130014936623491 229 215 178 1.6863286075710531 44 769 92 792 100 748 80 786
1751 0.18239378428325687 0.51510520958304806 1.9925254868223736 234 201 62 1.4073134928636384 44 773 92 795 84 649
1752 0.056382191995967966 1.9013920107828783 2.2586329154491178 0 0 0 0.24223841282894995 34 1198 88 520 92 796
1753 1.3482672594518157 1.4999815844027518 1.945995522922896 254 219 61 1.1912094425088933 44 775 88 523 92 797
1754 1.340902506161147 1.3711510686322907 1.7363642746214034 254 219 61 0.038860023127594789 44 776 92 798
1755 1.1641685852272718 0.53863837681822957 1.4395016954622719 130 107 40 1.7524722056353843 54 314 59 645 21 2
1756 0.4093548615740456 1.8620264136822584 2.3486494458081077 90 66 58 0.086804694743244259 34 213 59 530 21 172
1759 0.25609758081611245 0.55389144589025707 3.3582271452375014 100 99 89 0.15666522819493803 59 620 21 270 29 295
1761 0.86080390228113413 1.1370287352408897 1.157414460161978 119 105 41 0.23544378269325889 4 525 59 649 21 325 29 779
1762 0.82456359505026822 1.00657024729197 1.2338517661336521 32 36 43 0.32937127194585242 4 534 21 328 65 16
1763 1.0238471659602821 0.71745938679516297 1.5093534689601174 12 19 31 0.38493766954273967 59 656 21 333 65 23 47 497 37 328 62 131 74 134 1 134
1764 1.311431864343604 2.052486040732652 2.2204781063637267 230 214 175 3.2110946527653739 53 441 21 367
1765 -0.18304263874586643 0.5536099289380283 2.0890928470902521 106 84 18 0.10623533523825977 59 744 21 387 65 47
1766 0.11152093785276061 1.7804826365021946 2.5740124155443076 23 15 14 0.19586505714209729 59 774 21 440
1767 -0.19659479799872553 0.80347212195832285 2.7115167866186201 59 65 78 0.24191993602045633 59 596 21 454 65 89
1768 0.0043168383155435374 0.9655117412849491 3.0801585115580243 112 107 93 0.10381488073108695 59 831 21 481 65 120
1769 -0.33158462887592788 1.014979413974382 2.8553039430302318 91 93 86 0.034265886106333437 4 642 21 492
1770 -0.28158891054807317 1.3572229921862715 2.8836053786776681 86 95 93 0.14978479133553019 59 832 21 499 47 418 65 129 1 227
1771 -0.17205344638020906 1.1217806597592876 3.0308902877032406 101 103 95 0.15187211109811674 59 844 21 503 47 439
1772 -0.084223439321822455 0.84971149090389275 3.2055474052866959 124 123 111 0.17198251560645639 59 860 21 515 65 154
1773 0.10506445167330344 0.45542458699432026 3.4339211708995601 237 228 199 0.31591832499172612 59 1005 64 257 21 518 41 774 65 165
1774 -0.43444838467190755 1.3562441715368234 2.9102834022676247 129 132 124 0.17594172198300473 59 625 21 522 47 239 4 234
1776 0.82604099038203382 0.98445119067586007 1.3656094680499224 22 30 39 0.071800117289006912 59 657 21 550 65 192
1777 0.61614542440484876 1.1400219617890917 1.5425336585052429 79 97 130 0.16160378328854483 59 909 21 557 65 200
1778 1.2286478112412857 2.2600039506171274 1.9904815699838465 51 31 23 0.31967254104390774 5 158 59 922 21 565
1779 -0.038180681213856524 0.69561085655175137 2.8523055095621759 101 93 29 0.1386436743683343 59 973 21 608 65 328
1780 -0.63322422402791745 1.3617732909824178 2.962202286702547 133 131 116 0.41871159861614671 4 248 21 643
1781 1.2511468304402376 0.67363230168657029 1.4695627432623515 148 128 46 0.57680344198510536 59 1081 21 645 65 290
1782 -0.27806400213078636 1.38851183141583 2.7659916055743707 85 95 98 1.8254645489617254 5 215 21 727 65 107 59 819
1783 -0.059880308427826608 0.72181139075530609 2.5879672667752036 127 101 27 0.4204639015313183 59 1159 21 752 47 679
1784 0.27993059307612866 0.64703608075862085 3.257959987355215 235 224 194 0.64209028371475141 59 1148 21 756 65 407 1 399
1786 0.14276662354040465 0.57193387434077414 3.361401321304982 139 136 120 0.53872114909404323 4 831 54 874 21 805 47 741 16 813
1787 -0.077182466432010113 0.6414252085104637 2.6681775516389963 238 195 53 0.38716157725563449 64 243 34 600 21 216 34 300 59 275 17 220 97 285 29 598 47 185
1789 0.080239797775383842 1.6648789109432556 2.6055921542700595 34 28 28 0.69678214749066758 64 728 5 201 21 674 24 796 94 542 87 578 40 866 15 417 93 783 7 214 26 383 60 378 53 522 60 554 82 496 34 947 88 121 68 478 44 277 92 279 78 413 59 574 41 1293 95 674 97 1167 30 451 36 418 91 202 9 518 29 1077 33 515 81 756 2 440 18 357 49 626 23 543
1790 0.34852226287577642 1.9343876263965463 2.343225289008704 0 0 0 0.51703736441414938 82 576 88 336 68 501 5 185 44 447 21 588 34 743 78 379 54 430 4 119 59 746 68 358 65 67 65 235
1791 1.2299458496208573 1.2617878575056571 1.7969651651279828 0 0 0 2.9919514291750304 59 1181 21 795
1792 0.16372310964141698 1.7312610501846815 2.5412710088217976 84 94 96 0.28450673116568864 24 458 94 262 87 244 40 604 15 85 93 447 7 366 26 385 60 377 53 371 46 290 64 523 82 351 34 771 78 397 59 570 88 114 68 336 44 66 92 41 54 456 43 350 41 848 17 327 95 333 97 842 51 235 30 265 36 243 98 464 91 212 9 211 29 677 13 220
1793 0.4416060952831497 1.8919049716031058 2.3045340505926704 23 15 13 0.24001338187639751 64 247 41 358 29 284
1794 0.90079476363221977 1.0876553352366523 1.1788789437009775 107 85 18 0.18305072441067161 64 334 41 473 17 17
1795 0.90079476363221977 1.0876553352366523 1.1788789437009775 107 85 18 0.18305072441067161 64 333 41 474 17 18
1796 0.88766508001233313 1.296525436213124 1.1635459907567709 98 78 18 0.27706404828214459 46 66 64 341 41 488 17 30 95 31 97 610 51 11 30 23 90 19 29 435
1798 0.54458673768964605 0.48209441406659997 2.5569145112115592 169 128 30 0.2952879031679711 64 95 41 575
1799 1.7496899487388937 1.9200648874762316 2.1154432880388652 234 219 181 0.24623980597164308 64 363 41 662 17 168 95 144 97 238 51 115 29 117
1800 1.3322273121097148 1.5538496756051685 2.2956912168047627 233 217 178 1.8598289237837058 55 134 41 672
1801 1.3322273121097148 1.5538496756051685 2.2956912168047627 233 217 178 1.8598289237837058 55 135 41 673
1802 0.24351987900390396 1.1514586283354398 2.2063154904391622 59 42 4 0.25707847221959512 46 182 64 470 41 732 17 206 95 163 97 251 98 85 9 89 49 102
1803 0.15344053923317413 1.175541855669453 2.2149766659051928 40 49 70 0.22466853392394395 46 189 41 751 17 468 95 472 97 985 51 355 30 373 36 347 90 106 98 296 83 314 91 319 9 348 29 562 33 73 79 277 13 353 49 543 3 325 27 220 50 207 67 204 85 187
1804 0.83258367008228085 2.1409701186674481 2.0935778331996096 107 76 66 0.21163076209621537 46 280 41 779 91 227 9 235 13 287
1807 0.98414655125223582 0.72714454053011957 1.8863635012139559 2 1 1 0.55112617803299413 64 345 41 921 17 397 95 37 30 37 36 40 29 445 33 26
1808 0.77047909440423068 0.81377913775960475 1.9955549071010845 167 147 59 0.38758693216212181 55 270 41 925 17 403 95 422 97 935 51 305 30 330 36 60
1809 0.27665383464197296 0.55690386310573237 1.9709784368901202 254 233 79 0.30069461199849407 55 271 41 926 17 401 95 52 97 627
1810 0.66964017368112838 0.96228466766065535 1.9309442373197832 203 175 67 0.62255614355881717 5 62 41 933 82 453
1812 0.20757377960252216 1.050552123141703 2.1537661306293874 164 174 202 0.20020661239607979 46 170 41 971 17 176 95 126 97 688
1813 0.055228885775311258 0.92202937458406564 2.3597895578427006 170 177 199 0.21892156546172131 46 419 41 1002 17 204 95 162 97 708 29 563 33 74
1814 1.4077463551924863 2.2707133636605339 1.9680152207052333 232 217 181 0.18457687165263759 55 374 41 1010 17 498 95 239 97 761
1815 1.2229552376589099 2.1856610749346701 2.0539281169802051 232 216 180 0.15241765646035355 46 713 41 1043 17 533 95 493 97 776 51 392 30 199 90 383 9 741
1816 -0.049146175562918164 1.0584408319031136 2.2955030219504766 10 9 12 0.21788865806042018 46 484 41 1056 17 476 95 478 97 988 51 504 30 505 36 470 90 494 83 547 91 312 9 341 29 833 33 268 79 410 77 384 81 411 48 224 2 47 58 262 49 853 13 349 3 319 50 290 67 198 85 293
1817 1.0729369740577339 2.2842094230667009 1.9859259059538572 46 31 25 0.3776801191458275 46 746 41 1068 17 694 95 646 97 1142 51 578 90 561 98 598 83 634 91 650 29 831 33 273 81 617
1818 0.63229393550623125 1.7152700528308706 2.3368370319480154 65 69 87 0.57672499215022166 46 682 41 1079 17 693 95 644 97 1141 51 572 30 564 36 528 90 555 98 594 83 628 91 644 9 787 29 608 33 94 79 536 77 402 48 76 58 364 50 416 67 413
1819 -0.55422887936986109 1.2894466964264339 2.9707288486386658 136 138 128 0.15794812637444575 59 880 41 1144 95 394
1820 0.73343562310912436 0.85955616584922423 1.9758606520047002 169 150 60 0.64226824692280782 55 272 41 1158
1821 0.1479482305832682 1.0270122541172393 2.2918348475494463 63 46 7 0.74753929318848011 55 475 41 1189 17 674 29 983
1822 0.59007384648983763 1.8550753757918783 2.3779710848809463 189 177 146 0.96521536481853509 46 819 41 1207 17 702 95 653 90 416 98 542 83 581 91 588 9 791 29 1070 2 429 13 406
1824 -0.25319487681738617 1.6072798345835828 2.7260837263581812 47 36 31 0.61764687161415521 55 439 2 315
1825 -0.33688828610896687 1.5721944252083264 2.719794795221262 47 36 31 0.54034656093704669 46 568 41 1232 17 732 95 687 97 1221 51 538 30 579 36 540 90 529 98 553 83 595 91 597 29 1023 33 454 79 455 77 462 81 758 48 343 2 314 58 432 49 899 13 517 27 419 50 380 85 386
1826 0.10601297154682235 1.1123792344512757 2.2058256878388622 90 79 46 0.24864725523044801 55 539 41 1276 17 758 95 711 97 1207
1827 -0.044902987401249608 1.6090661634899972 2.6230795607623323 27 21 19 0.35384829119650568 46 823 41 1295 17 725 95 565 97 1064 9 702 29 1014
1828 -0.2346005140279955 1.508916942761573 2.711191189320513 26 19 16 0.35959980459333246 46 760 41 1298 29 1082 33 452 48 339
1830 -0.27291989714586729 1.5911950584149113 2.6672557157314745 40 28 25 0.30086963419616458 46 825 41 1300 17 773 9 792
1831 0.91597642161155557 0.63869054216598531 1.7044228436084623 240 206 71 0.59986312565558686 64 784 41 1302 17 776 97 1083 29 1037 33 469
1832 0.83779384693926817 1.5714451780455962 2.1998068441804222 231 209 168 2.2973690162347826 46 847 41 1318 17 820 95 774 97 1242 36 474 29 1140
1833 0.57590241573171408 1.638933759030041 2.1783257425555451 41 48 66 1.4614847886569879 55 390 41 1320 17 800 97 1212 36 563 30 559 29 989
1834 0.091822448070360482 0.47568599801207545 2.0057179407776307 255 235 79 1.2030987587270807 98 559 83 604 9 818 91 652 51 612
1837 -0.097705850787566093 0.57323679967873753 2.0336187281712537 217 183 52 1.1713324799373308 55 598 41 1364 17 833
1838 0.49131148152620008 1.1373026871078551 2.1342676475226132 82 54 7 1.299894424640015 64 811 41 1367 17 834 95 788 97 1260 51 621 30 592 90 607 98 656 83 683 91 677 29 1136
1840 0.28497986264505409 1.7558965385204173 2.4982615860651287 88 96 96 1.1204514323479731 46 905 41 1373 17 840 95 792 97 1285 51 636 90 618 98 643 83 673 91 684 9 846 29 1164 33 587 81 856 48 448 2 513 49 1152 13 603 79 501 3 485
1841 0.1403057068193525 1.6791161527744416 2.5650284775551984 79 88 88 1.2212749753623728 46 893 41 1374 17 841 95 793 97 1270 51 637 36 569 90 619 98 644 83 672 91 683 9 845 29 1165 33 588 79 498 77 488 81 828 58 428 49 1150
1842 0.67409561502703708 1.8813079059376998 2.31686000925058 217 202 164 1.0713396431776843 41 1383 17 847 95 804 97 1299 30 640 98 672 83 700 33 583 81 844
1843 -0.060565991216555946 1.2983554518025731 2.7100021599459847 46 57 81 1.6280662578909286 41 1394 17 859 95 812 97 1315 30 661 83 709 90 662 91 721 9 864 46 909
1844 -0.074026085356277735 1.3007007938796022 2.6886560405878561 46 57 81 1.9049537293896626 41 1395 17 858 95 811 97 1314 51 672 30 660 90 661 83 710 91 722 9 865 29 1175 79 596 77 562 13 648 27 500 50 467 67 476
1846 0.64975181383502467 1.0217332061132223 2.0146637302951365 128 106 45 1.2283397371976974 64 846 41 1406 17 868 95 822 30 665 36 637
1847 0.94094615752186839 1.2051080128958302 1.1823140042651588 106 92 26 1.5770069716692576 41 1409 29 1197 33 617 77 567 58 524
1848 0.95736959344516503 0.68549154948382651 1.8903758909127539 95 108 140 0.40595562060070289 64 574 41 919 17 396 95 418 97 929 51 17 30 315 36 289 90 23 98 13 29 792 33 236 77 33 58 42
1849 1.464936378471396 2.199393088191091 2.0300262115009184 228 214 178 1.4633252091292437 46 926 41 1408 9 884
1850 1.0574007807312358 0.7308241275989148 1.3869230533889045 2 2 3 0.46018350356223908 41 908 17 3 95 2 97 590 29 775 33 227 77 3 48 176 58 3
1851 0.94885022940021657 1.0106399697639998 1.2093824240154758 144 129 39 0.035522745942462068 41 467 17 12 95 12
1852 0.91809524049890623 1.0619603533365589 1.1847237524952554 141 127 46 0.061522560073744501 41 472 17 15 95 15 97 598
1853 0.91809524049890623 1.0619603533365589 1.1847237524952554 141 127 46 0.061522560073744501 41 471 17 16 95 16 97 597
1854 0.82495976825415407 1.0476369329311928 1.2160508483367281 17 13 6 0.19164171686931727 41 476 17 21 95 20 90 256 98 209 46 313 83 250
1855 0.82440368969331546 1.047765952912499 1.2145977294905739 17 13 6 0.12912185296198422 41 475 17 22 95 19 97 601 51 276 30 302 36 11 90 255
1856 0.87270040715644548 1.1392666711982076 1.1551229855345524 109 85 17 0.15448263803507586 41 478 17 23 97 603 29 778
1857 0.86530669520770387 1.1395514077411319 1.1522660827141376 109 85 17 0.16055387794855241 41 479 17 24 97 602
1858 0.82640196425708556 1.1959337051017398 1.1931982602043236 139 124 42 0.033412587326223091 41 484 17 26 95 26 97 608
1859 0.82640196425708556 1.1959337051017398 1.1931982602043236 139 124 42 0.033412587326223091 41 485 17 27 95 27 97 609
1860 0.87613746934532943 1.1862176689475814 1.522274343354701 22 19 17 0.12596954349986181 41 500 17 39 97 54
1861 0.83228759445691269 0.66367832992547915 2.1218178248859618 3 3 3 0.24996387373853815 41 504 17 41 97 81
1862 1.0032939504529297 0.95372602098637405 1.8813426751259541 36 38 46 0.13535874048161117 41 503 17 42 95 55 97 634 30 328 36 59 29 28
1863 0.10976786932003728 0.51438687866725019 2.0315812065153906 182 121 23 0.092162376433749929 41 528 17 48 97 73
1864 0.18550743207772499 0.62521391544361049 1.9419061495366732 173 129 28 0.052053710440889876 41 525 17 50 97 71
1865 0.18550743207772499 0.62521391544361049 1.9419061495366732 173 129 28 0.052053710440889876 41 526 17 51 97 72
1866 0.76095937766491373 0.94190211672109536 1.9161734205116967 165 130 48 1.4265199091808773 46 91 17 52 95 63
1867 0.013155140966979796 0.44448203470312314 2.0775572503531272 255 231 78 0.27199328417359736 41 936 17 54 97 78
1868 0.78547651916937222 0.79526347639873518 2.0934394188246808 31 35 45 0.14986011495668847 41 516 17 57 95 64 97 643 51 309 30 70 36 66 90 295
1869 -0.031066908369073321 0.58621891868563325 2.0070540764845597 165 124 31 0.14233448819809949 41 559 17 70 97 103
1870 -0.12463877302329307 0.51621123526922585 2.0605165236589289 255 236 81 0.097228402338203943 41 574 17 73 97 110
1871 -0.22355992631533764 0.49325189899214222 2.1139649778163605 254 232 77 0.36580553111034192 41 618 46 85 17 90 95 77 51 40 29 84
1872 2.0410695356049158 1.4879481770181804 2.4124057643108165 236 221 184 0.24427757919882676 46 358 17 96 97 168
1873 0.44719852720828679 0.90266225548870949 2.1769252722470336 9 6 5 0.15831871788739507 41 630 17 98 95 91
1874 0.89707055945767389 1.321489662005995 1.957825061652529 34 41 55 0.15094368332673941 46 150 17 102 95 97 97 667 41 601 51 63 30 95 36 87 90 79 98 68 83 81 91 77 9 81 77 76 27 215 85 37
1875 1.8730979305982602 1.4863941154637301 2.4071805070292065 108 98 76 0.52791634344609428 46 146 17 103 95 106 97 681 51 90 90 105 98 99 83 116 91 114 79 108 13 141 49 615 3 148
1876 0.58176050521481182 1.304418156075368 2.0258605449031419 6 7 12 0.08797856017160309 41 676 17 157 95 119 97 683 51 341 30 354 36 326 90 329 98 276 83 298 27 216
1877 1.5649024734927626 1.5485033723803499 2.4392327561693863 232 215 178 0.14194922995941986 55 108 17 161 95 141
1878 1.6437559466477485 1.8635805288279585 2.1820696323267752 234 218 181 0.1013735408930994 41 671 17 178 95 154
1879 0.0091096671348719627 0.56847211561253963 2.6568592196486378 135 97 18 0.47742412849267285 41 726 17 183 95 142
1880 1.5652972562911487 1.8298205794923963 2.2029208429854426 234 218 181 0.1903145324998235 41 675 17 184 51 126 29 145
1882 0.18977352722068602 0.95698806113102719 2.3201700258247846 61 41 5 0.12209721669400109 41 719 46 165 17 187 95 145 97 699 51 348
1883 1.5220143776173019 1.8010906387917824 2.2421698699549353 234 218 180 0.059978372064815245 41 683 17 190 97 283
1884 0.071939198519834505 0.87270884799606485 2.3690869247398201 254 213 60 0.24481573806715151 46 164 17 194 95 151 97 223 51 83 9 71
1885 0.13568996735118016 0.92597517177952293 2.3537752430392938 62 43 6 0.18729596715289723 41 729 17 195 95 152 51 89 97 980 98 273 91 73 9 75
1886 1.6615759182333896 2.0379161443121339 2.0764949116275155 231 218 181 0.17970451676183999 41 681 17 197 51 142
1887 1.41696412745395 1.7435592745931454 2.3102053456944045 233 217 178 0.0033902042980807358 41 697 17 202
1888 1.5591672610394256 1.9808665632849225 2.1443216064450632 231 217 181 0.0092043284607720537 41 694 17 207
1889 1.5591672610394256 1.9808665632849225 2.1443216064450632 231 217 181 0.0092043284607720537 41 695 17 208
1890 0.16369805118099717 1.1269321223381166 2.1927287427026703 162 174 203 0.11603381713610809 41 740 17 212 29 538
1891 1.5756896084511041 2.0640575646537571 2.0845260834786923 231 217 181 0.062696450760876987 41 698 17 213 95 186
1892 1.488845467062085 1.9494728766273099 2.1705578354172888 231 217 180 0.14693052538541509 41 703 17 216 95 184 51 146 90 134
1893 1.4882100539119192 1.9490580322391813 2.1694646112843281 231 217 180 0.15495390834227288 41 702 17 217 95 185 51 147 29 172
1894 -0.2313782692438224 0.80444056497695382 2.3269117173691409 76 94 132 0.1896778548865419 41 753 17 219 95 165
1895 0.014462949046874942 0.86146736760989628 2.4744872190971305 150 119 37 0.19076209137294328 46 171 17 226 95 177 97 281
1896 0.056344241329343341 1.0880822189297641 2.2156428552047451 254 214 58 0.14759361753017863 41 750 17 227 95 173 97 712 51 100
1897 0.065771492204021967 1.0833895002571861 2.2195068920233196 254 214 58 0.64816677618331775 41 749 17 228 95 174 51 99 90 96 98 281 83 302 91 308 9 599
1899 2.3422081554502885 2.3544165031727209 2.4179867890133075 232 217 181 0.60051579106188657 41 704 17 234
1900 1.2962342877004025 1.8311435087532553 2.287216693614559 113 103 82 0.096454457313407432 41 727 17 237 95 202 97 734 51 158 36 154 30 167
1901 1.234461452916376 1.7827033953232436 2.333745432049477 111 98 75 0.25195566988844614 41 737 17 245 95 208 97 742 51 160 30 168 36 155 90 145 98 334 83 367 79 337
1903 0.55490090778069467 1.7029897427921172 2.4244416248442304 52 65 92 0.29960626774287358 41 787 17 281 95 286 97 801 30 412 36 384 90 384 98 393 29 277 33 98 77 311 81 144 48 89 58 290
1904 -0.058502476054272383 0.64375630416997509 3.3600705618987812 197 188 161 0.081252540460525186 41 815 17 284 95 292 97 808
1905 -0.094466699320119016 0.71546040469938432 3.2999803300721613 194 185 158 0.092792031664816602 41 823 17 291 95 295
1906 -0.096204014482440481 0.71564778463207379 3.297770606842902 194 185 158 0.082377278939599757 41 824 17 292 95 296 97 492
1907 -0.10372600142175638 0.69707012841643912 3.3255999538848728 198 189 161 0.11337863152662728 41 825 17 293 95 297 97 814
1909 -0.068730914428654172 1.3237388085544666 2.6237348752718876 57 66 89 0.23256245308328488 41 835 17 305 95 307 30 418 36 391 90 375 9 133 46 247
1910 -0.20639235537919468 0.94113927551618026 3.1213768322611974 125 125 116 0.057754826728781961 41 844 17 309 95 315
1911 -0.1291042329813194 1.0698919146630985 3.0523428942255366 95 97 90 0.085165382087733416 41 845 17 312 95 320 97 833
1912 -0.26475656836183359 0.91105613203769575 3.1517881429810357 130 130 121 0.081828212104439357 41 849 17 313 95 322 97 836 29 900
1913 -0.25313502251830711 0.95221551702918894 3.1295652491963826 122 123 114 0.044071594609798599 41 851 17 315 95 323
1914 -0.16989344875318921 1.122190668910668 3.0207555214157922 100 102 93 0.061608953805078331 41 854 17 318 95 326 97 840
1915 -0.16456204707076552 1.1218802116930442 3.0272898172696148 100 102 93 0.10512124450456077 41 855 17 319 95 327 97 839 29 713
1916 -0.29424685736726647 1.0131784053044539 3.0546073791629369 115 118 110 1.3665824232469386 41 856 17 320 95 328 97 843 29 724 81 524 33 180
1917 -0.20193202890832163 1.2859257872941203 2.7422184333574071 59 68 91 0.21999192539576046 41 852 17 321 95 552 97 1051 51 423 30 261 36 398 27 267 85 244
1918 -0.19280121862752847 1.2867093951576434 2.7528215512313117 59 68 91 0.14790086077399778 41 853 17 322 95 553
1919 -0.22922667681375453 1.0919633446989696 3.0506937921868151 112 114 104 0.062181277727452439 41 857 17 324 95 330 97 847
1920 -0.28376698441652121 1.0616042357489945 3.0875394493606017 120 122 113 0.073260395745866527 41 862 17 328 95 338
1921 -0.28376698441652121 1.0616042357489945 3.0875394493606017 120 122 113 0.073260395745866527 41 863 17 329 95 339
1922 -0.26523987433114327 1.1435637232713176 3.0275204788259336 115 116 106 0.088598636417900112 41 866 17 332 95 342 97 860
1923 -0.34214171553373041 1.0316099947297281 3.117236537410268 125 127 120 0.038439631671234389 41 867 17 333 95 343 97 861
1924 -0.14692936656058445 1.4833102167095766 2.7542402745934966 71 82 84 0.3297925729690796 41 1128 17 341 95 352 97 868
1925 -0.17868669808824864 1.3105157015617024 3.081158934823327 71 76 72 1.1668549621653703 41 878 64 300 17 346
1926 -0.30215109347685226 1.3031518609549819 2.9211705824990362 71 76 72 0.046090043898684936 41 879 17 347 97 555
1927 -0.33524845200788611 1.3260486585299283 2.9027814741255007 110 113 106 0.091620630386980081 41 882 17 354 95 363
1928 -0.39272229226222061 1.2991893101535352 2.9364719647204782 122 124 115 0.073728340896286021 41 1133 17 359 95 366 97 883
1929 -0.39272229226222061 1.2991893101535352 2.9364719647204782 122 124 115 0.073728340896286021 41 1134 17 360 95 367 97 884
1930 -0.4007286676880516 1.325461005883946 2.9258940467041499 80 85 80 0.10116278330367413 41 887 17 364 95 373 97 570
1931 -0.4007286676880516 1.325461005883946 2.9258940467041499 80 85 80 0.10116278330367413 41 888 17 365 95 372 97 569
1932 -0.43920892616303381 1.3537780754649589 2.90017034436557 128 131 121 0.15328219534042636 41 896 17 372 95 381 97 894 51 250 30 278 36 258 29 761
1933 -0.43704192320477103 1.3533046798995398 2.9028511877386292 128 131 121 0.13441153475178386 41 897 17 373 95 380 97 893 51 251 30 277 36 257
1934 -0.37679626438655112 1.4641340870950388 2.8014946663541718 36 26 23 0.16634268194821539 41 893 17 374 95 382 97 890 29 398
1935 -0.41869091429802235 1.4022139513255403 2.8670211559077998 82 85 77 0.16255596692186072 46 295 17 376 51 256 98 194 83 236 91 191
1936 -0.49590606162719447 1.2810666249123521 2.9768996745038843 126 128 122 0.077289823061103588 41 898 17 378 97 897 95 386 51 249
1937 -0.66503677086517654 1.4278493808066683 2.9406283961536483 88 88 83 0.44526968155309427 41 436 17 385 95 579 97 1075 51 452 36 506 90 454 98 467 83 497 91 222 9 213 79 376 49 590 13 391 3 368 27 382 50 332 67 336 85 329
1938 0.99426618623508289 0.93665110668480855 1.2585524585307535 83 91 109 0.27741725760218799 41 911 17 391 95 8
1939 0.19970444365052492 0.66001750206594734 1.9162406688198221 252 230 78 0.41427922591133992 41 931 17 406 95 421 97 632 51 28
1940 0.00014912156755169737 0.42582027504003461 2.1197581972496051 254 232 77 0.34338117965169118 41 939 17 409 95 62 97 87 51 27 90 32
1941 -0.044176485870682312 0.26110013365627072 2.3403181308080603 0 0 0 2.2018883842346 64 165 17 413 95 428
1942 0.078425941545736177 0.68549487025759881 1.9390713462748488 162 118 23 0.22640294516068762 41 943 17 417 95 426 51 303
1943 0.41581565813496418 0.66409013849496734 2.463664359394329 0 0 0 0.29947206384192226 41 952 17 435 95 451 97 668
1944 -0.0099593932919360435 0.51531847010443377 2.5293910754348063 32 34 45 0.10805505420665802 41 965 17 440 95 455 97 969 36 323
1945 0.8774268341505691 1.4416886783511449 2.1835692998063587 117 97 30 0.18522110286424712 41 967 17 453 95 467 97 982
1946 0.0084720424297871945 0.47595603927463437 2.7819575459008279 148 149 172 0.44581313795681354 41 728 17 454 95 465 97 705
